ply
format ascii 1.0
element vertex 373
property float x
property float y
property float z
end_header
0.064000 0.165568 1.124612
0.091565 0.315770 1.207009
0.091751 0.315946 1.207876
0.286454 -0.424397 2.407668
0.286454 -0.424397 2.407668
-0.090534 -0.016816 0.458270
-0.039238 0.032473 0.330045
-0.038147 0.061303 0.708234
0.052871 0.078144 0.617549
0.058725 0.085693 0.578544
0.060210 0.087498 0.569007
0.000000 -0.000000 0.000000
0.000000 -0.000000 0.000000
0.000000 -0.000000 0.000000
0.000000 -0.000000 0.000000
0.000000 -0.000000 0.000000
0.000000 -0.000000 0.000000
0.039200 0.094771 0.674610
0.051495 0.086581 0.816333
0.082359 0.095745 0.496790
-0.053186 -0.015878 0.255513
-0.053094 -0.016037 0.255177
-0.051720 -0.003993 0.295047
-0.051662 -0.004083 0.294863
0.039648 0.132220 0.516124
0.077154 0.073359 0.298490
0.003438 -0.002281 0.011771
0.003449 -0.002295 0.011678
0.086972 0.138966 0.662233
0.073026 -0.057294 0.367230
0.073026 -0.057294 0.367230
0.066012 -0.022712 0.305183
0.071707 -0.034751 0.318608
0.138238 0.179756 0.710520
0.198319 -0.148532 0.708423
0.194912 -0.057210 0.557321
0.818189 0.488531 3.281964
0.315704 0.209911 0.999791
0.423132 0.257542 1.123069
-0.096788 0.015487 0.478354
-0.100364 -0.054390 0.537103
0.017648 0.052086 0.230771
0.110085 -0.086150 0.444184
0.110772 -0.085996 0.443853
0.007378 0.004270 0.027041
0.104996 0.069299 0.376827
0.007765 0.004048 0.026783
0.142132 0.091347 0.402664
0.051516 0.037012 0.186155
0.034022 0.114875 1.039577
0.024178 0.129569 0.737621
0.000000 -0.000000 0.000000
0.000000 -0.000000 0.000000
0.000000 -0.000000 0.000000
0.000000 -0.000000 0.000000
0.000000 -0.000000 0.000000
-0.077241 -0.114659 0.533113
-0.016799 0.061974 0.348135
-0.032561 -0.095910 0.865859
-0.032561 -0.095910 0.865859
-1.575619 0.579068 4.869602
-1.051689 0.381827 3.496268
-0.991743 0.359422 3.339298
-0.813144 0.291934 2.870903
-0.780627 0.279952 2.785924
-0.750900 0.268176 2.707423
-0.723726 0.257998 2.636248
-0.651381 0.230566 2.446420
-0.613000 0.216387 2.346082
-0.539397 0.188394 2.152872
-3.781906 -2.838414 15.340336
-0.144031 0.008613 1.261549
-0.139853 0.101991 1.452839
1.166176 -0.352468 5.649523
-0.031916 0.033941 0.150344
-0.059098 0.018211 0.615194
-0.000013 -0.000036 0.000250
-0.000013 -0.000036 0.000250
-0.000013 -0.000036 0.000252
-0.000013 -0.000036 0.000252
0.077798 -0.014125 0.426713
0.089214 0.044106 0.615669
-0.000000 -0.000000 0.000000
-0.000000 -0.000000 0.000000
-0.000000 -0.000000 0.000000
0.261532 -0.537487 4.806012
0.054326 -0.084655 0.542323
0.055283 -0.069625 0.530309
0.056402 -0.065564 0.519412
0.056976 -0.057055 0.514569
0.069084 -0.058880 0.485954
0.073146 -0.070135 0.411260
0.073146 -0.070135 0.411260
0.075038 -0.057386 0.395148
0.074458 -0.042636 0.385549
0.077563 -0.044946 0.362536
0.077546 -0.040862 0.361418
0.077934 -0.030809 0.361504
0.062795 0.018956 0.350387
0.079617 -0.042233 0.329838
0.051284 0.053674 0.419023
0.059201 -0.076060 0.422859
0.018992 0.001809 0.102296
0.048074 -0.009393 0.179612
0.048074 -0.009393 0.179612
-0.198496 0.054009 0.955103
-0.198496 0.054009 0.955103
-0.008054 -0.012170 0.521847
0.073876 -0.030997 0.514444
0.057917 -0.014870 0.328564
0.057917 -0.014870 0.328564
0.052616 0.000989 0.114452
-0.109462 -0.017146 1.267737
-0.035073 0.007609 1.269320
-0.035073 0.007609 1.269320
2.791342 1.342749 7.095986
-0.013843 -0.017270 2.816000
0.258047 -1.446916 8.524311
0.446119 -1.873300 8.311692
0.501212 -1.932463 8.665099
0.540256 -1.664247 8.687305
0.540256 -1.664247 8.687305
0.545101 -1.920940 8.668137
0.685782 -2.081526 9.308464
0.755994 -2.109422 9.617943
0.034780 -0.007076 0.429645
1.083399 -2.119246 11.621378
2.110297 -3.637995 14.527362
2.110297 -3.637995 14.527362
-0.962975 -0.206099 2.565942
-0.924611 -0.476446 2.827420
-1.020160 0.016725 3.226906
-0.943728 -0.338334 3.032917
-0.952790 -0.315954 3.070700
-1.068216 0.274704 3.541627
-0.991582 -0.105355 3.373371
-1.025628 0.018203 3.603026
-1.020368 -0.008250 3.670448
-1.014359 -0.050951 3.748857
-0.984732 -0.222409 3.918763
-1.059590 0.134397 4.234617
-1.086474 0.230583 4.392083
-0.998908 -0.167848 4.038411
-1.007138 -0.138632 4.085877
-1.049842 0.068168 4.339721
-1.089845 0.231494 4.537556
-1.051676 0.051527 4.434869
-1.014536 -0.139188 4.304399
-1.054469 0.035756 4.479583
-1.038027 0.088850 4.430923
-1.112877 0.324606 4.805566
-0.935043 -0.596215 4.041125
-1.054826 0.036803 4.570063
-0.927936 -0.590416 4.043105
-1.014629 -0.164451 4.496981
-1.103231 0.220237 4.916359
-0.928794 -0.590111 4.193573
-0.928794 -0.590111 4.193573
-1.123562 0.364677 5.204373
-1.172774 0.405817 5.579272
-1.052385 -0.025227 5.116857
-0.931946 -0.630966 4.582316
-1.051819 0.001311 5.183159
-1.153484 0.382300 5.740393
-1.087721 0.093235 5.410723
-1.074294 0.074511 5.429595
-1.043851 -0.177304 5.315914
-0.979212 -0.171656 5.118755
-1.189377 0.549817 6.569702
-1.063344 -0.116963 6.097741
-1.068512 -0.217144 6.242961
-1.095617 -0.134582 6.820855
-0.976103 -0.904711 6.710676
-1.101934 -0.312930 7.754536
-1.156090 -0.308870 8.281102
-1.156090 -0.308870 8.281102
-1.105975 -0.269063 8.162988
-1.270193 0.616098 10.031382
-1.192894 -0.533554 10.785609
-1.237798 -0.414659 11.446065
-1.246445 -0.256404 11.915119
-1.081117 -0.529760 10.578362
-0.988581 -1.379428 9.714273
-1.264278 -0.228652 12.553639
-1.228827 0.616582 12.335371
-1.104510 -0.603180 11.541452
-1.288293 -0.281910 13.524327
-1.298311 -0.621789 14.018086
-1.192310 -0.482342 12.842103
-1.279193 -0.323457 13.880358
-1.279193 -0.323457 13.880358
-1.215834 -0.636541 13.272903
-1.215834 -0.636541 13.272903
-1.355702 0.585153 14.862605
-1.355702 0.585153 14.862605
-1.241267 -0.246861 13.638485
-1.318543 -0.462224 14.518952
-1.384518 -0.144427 15.372170
-1.209718 -0.202763 13.568212
-1.170251 -0.610866 13.249513
-1.410921 0.753215 16.393139
-1.386145 -0.250525 16.405058
-1.310150 -0.706492 15.608901
-1.437176 0.709018 17.435617
-1.437176 0.709018 17.435617
-1.099348 -0.859367 14.249094
-1.388742 0.751548 18.032404
-1.227694 0.217777 16.382385
-1.470248 -0.927862 20.161585
-1.486343 -0.875660 20.593761
-1.232697 -0.829174 17.326221
-1.232697 -0.829174 17.326221
-1.408379 -0.795138 20.283409
-1.434586 -1.066935 21.364950
-1.707989 -0.381298 27.054756
-1.707989 -0.381298 27.054756
-1.612045 -1.398991 26.650690
-1.172026 -1.516942 19.727848
-1.648952 0.773699 28.163702
-1.348977 -1.187533 23.477949
-1.839208 0.910631 33.076839
-1.510531 0.793862 29.785971
-1.516619 -4.601202 47.449795
-1.516619 -4.601202 47.449795
-1.571791 1.219095 61.194748
-73.968552 119.968239 3086.923828
-0.340379 0.100586 3.906474
-0.312079 0.059489 3.615312
0.642918 -1.959682 9.584541
0.687721 -2.053553 9.901309
0.647978 -1.782622 8.963745
0.719443 -1.909116 9.360686
0.760984 -1.674407 9.461249
0.789919 -1.865541 8.953909
0.816902 -1.748505 8.634819
0.094579 -0.063314 1.208522
0.094979 -0.060504 1.177828
0.216389 -0.012334 2.215408
0.193675 -0.006855 1.920852
-0.090337 0.005144 1.172335
-0.078289 -0.056366 1.227855
-0.063955 -0.060032 1.231473
-0.026392 -0.003166 1.226182
0.003788 -0.101180 1.242676
0.006833 -0.027990 1.255963
0.008989 -0.021265 1.260304
0.010544 0.017043 1.265924
0.010544 0.017043 1.265924
0.000351 -0.058831 1.286548
0.013304 -0.066201 1.257745
0.016399 0.009565 1.269403
-0.080503 0.077852 1.630422
-0.055241 -0.067331 1.468492
-0.055056 0.065448 1.635354
-0.055056 0.065448 1.635354
0.008389 -0.032414 1.460078
0.009915 -0.070877 1.461251
0.011727 -0.002894 1.460876
0.014270 -0.095024 1.458882
0.015064 0.035842 1.454737
0.015415 -0.076468 1.457667
0.015904 -0.097547 1.458738
0.016008 -0.067428 1.458827
0.017925 0.012134 1.454369
0.020855 -0.013459 1.458356
0.058237 -0.114886 1.440118
0.059208 -0.117431 1.439070
-0.035472 0.046558 0.213250
-0.041905 0.120586 0.937406
-0.017832 0.019900 0.112139
0.000069 -0.000099 0.005704
0.000070 -0.000191 0.004583
0.000070 -0.000191 0.004583
0.055626 0.025646 0.910967
0.024598 -0.035293 0.604638
-0.043057 0.074800 0.376569
0.039344 -0.030466 0.612486
-0.010680 -0.045523 0.507925
0.001130 -0.004630 0.207875
0.001894 -0.007462 0.215015
0.025261 -0.028024 0.203815
0.157794 -0.114305 0.620226
-0.017097 0.055422 0.723935
0.003295 -0.006721 0.671490
0.006863 0.050129 0.669897
0.032386 -0.072604 0.575736
0.033348 -0.000452 0.592480
0.036480 -0.007314 0.582504
0.037619 -0.019368 0.577509
0.039668 0.034326 0.580270
0.039668 0.034326 0.580270
0.040704 0.028309 0.577064
0.047633 -0.004161 0.550951
0.059347 -0.011583 0.515978
0.060144 -0.008834 0.514304
0.060115 -0.010658 0.514000
0.060676 0.016706 0.517805
0.062043 0.016429 0.514172
0.063038 -0.004519 0.507295
0.066697 0.053508 0.507999
0.066710 0.000819 0.497610
0.084741 0.123648 0.470241
0.085160 0.034055 0.456639
0.087179 0.009952 0.441139
0.091764 0.026208 0.430865
0.090679 -0.010717 0.425687
0.091114 0.002135 0.427094
0.093821 0.012147 0.420978
0.092979 -0.014893 0.415524
0.094038 0.021261 0.416118
0.094038 0.021261 0.416118
0.094741 0.012548 0.417418
0.094917 0.009056 0.415409
-0.094594 0.084210 0.482523
-0.166070 0.164607 0.842913
-0.050510 -0.029749 0.258926
-0.051646 -0.027978 0.263690
-0.050908 -0.029120 0.260618
-0.130799 0.212509 0.855167
-0.130799 0.212509 0.855167
0.008212 0.031297 0.135489
0.083663 0.020670 0.380498
0.083663 0.020670 0.380498
0.056202 0.020027 0.254658
0.056202 0.020027 0.254658
-0.054327 0.016635 0.220863
-0.006597 -0.083728 0.714122
-0.006597 -0.083728 0.714122
0.106872 -0.077055 0.806677
0.098587 -0.100963 0.777699
0.013000 -0.008143 0.093171
0.013000 -0.008143 0.093171
0.013037 -0.008163 0.093325
0.013037 -0.008163 0.093325
0.025122 -0.000176 0.114874
0.030794 -0.004413 0.140824
0.025250 -0.000256 0.115355
-0.013542 0.010357 0.046098
-0.015099 0.011015 0.052930
-0.016386 0.011535 0.058455
-0.017597 0.012029 0.063699
-0.018178 0.012262 0.066198
-0.859958 -0.952547 3.599129
-0.823083 -0.923163 3.444919
0.035511 -0.010340 0.172597
0.035549 -0.010293 0.172482
-0.001812 0.001120 0.005177
-0.034459 -0.109472 0.011087
-0.001785 0.001075 0.005569
-0.001736 0.000976 0.006365
-0.001736 0.000976 0.006365
-0.001080 -0.000214 0.016305
0.059243 -0.057064 0.520694
-0.094210 0.061920 0.388440
-0.087396 0.063008 0.397690
-0.083838 0.063774 0.402471
-0.007198 -0.008500 0.038880
-0.007130 -0.008446 0.039105
-0.006743 -0.008145 0.040366
-0.006573 -0.008012 0.040920
-0.043389 -0.042498 0.415003
-0.043389 -0.042498 0.415003
0.008004 -0.009403 0.278097
-0.000000 -0.000000 0.000000
-0.000000 -0.000000 0.000000
-0.000000 -0.000000 0.000000
-0.000000 -0.000000 0.000000
-0.000000 -0.000000 0.000000
-0.012184 -0.012144 0.690189
0.005049 0.015554 0.099213
0.043451 -0.006037 0.518354
-0.001632 -0.038220 0.109137
0.010370 -0.034919 0.162398
